4.652458388406103040e+01 4.819641838748067642e+01 7.104274931838149065e+00
1.000000000000000000e+02 2.659682233297309040e+01 1.082970947073858348e+01
6.189901121203246248e+01 1.271353127232941382e+01 3.763591486486362925e+01
7.313301400124949225e+01 2.837790244931296613e+00 1.741293219685181271e+01
4.092763781560400815e+01 3.334663963340167214e+01 5.633131427254656209e+00
3.904342384388130682e+01 2.325973357146913401e+01 3.596520705885091651e+00
4.256683007908154082e+01 2.301043444138452188e+01 3.523760579165135631e+00
3.674789501177501450e+01 6.610836755843571666e+00 1.391278319012714704e+01
3.448471711354225988e+01 1.030595590062832301e+01 2.525706195047785130e+01
2.999792454691421639e+01 4.784211632910078116e+00 2.120756816531251587e+01
2.054418690805450254e+01 0.000000000000000000e+00 2.422319145162557419e+01
3.800241967716434743e+01 7.535551443920808445e+00 1.357517240750667042e+01
3.563006290550604405e+01 2.253265803650152677e+01 9.458005451973500399e+00
3.207921694503166066e+01 3.050687362727806118e+01 5.633892208425453241e+00
3.133630626080627479e+01 3.363078830432910138e+01 1.299495025838135120e+01
2.832620910301583095e+01 3.151145945150967975e+01 1.482823970269815206e+01
2.914068862600597853e+01 3.321641775118850148e+01 1.308501975827856434e+01
3.417544075563251482e+01 2.234212457162582055e+01 9.740115330735559240e+00
3.987778829855047036e+01 2.613507341595618172e+01 5.882796713073467743e+00
3.839847403682763627e+01 2.866337050581596202e+01 6.127871351733006122e+00
3.504003838757679290e+01 2.002709029811682484e+01 7.728044606238452019e+00
3.722111043718871315e+01 2.795161318761816460e+01 9.481993702160737669e+00
3.756597066013560493e+01 1.690571539385600985e+01 1.718721973734787056e+01
4.294483379058991801e+01 2.436699276956561278e+01 1.658831263229135189e+01
3.633308706345701466e+01 1.856640844170981453e+01 9.865825987164630106e+00
3.951044104810802793e+01 1.091341866441094766e+01 8.762264649016385576e+00
3.793479338056330619e+01 2.657078526593691237e+01 7.949145784924553482e+00
2.917444338728959963e+01 2.925499959533305727e+01 1.095826890885657967e+01
2.941560569780898149e+01 3.905341036720804482e+01 1.095393616448169105e+01
2.939024135953776096e+01 3.932422379860410899e+01 7.253245856953512316e+00
2.828664708928564409e+01 3.673600614939388720e+01 1.194498869947239328e+01
1.972926922912610337e+01 3.385024205167035660e+01 1.629515944623988943e+01
3.362932373619314319e+01 4.932327433444221043e+01 1.179427129565594790e+01
2.618805559059431332e+01 4.027589496130025282e+01 6.768499124116694077e+00
2.809161844979984224e+01 3.267281391010654801e+01 1.071835641051156429e+01
2.845056696953707487e+01 3.420914530166810152e+01 1.106708354313214748e+01
1.997546718045887104e+01 4.176352093385523290e+01 1.264572661342491777e+01
2.734179465270666753e+01 3.142645644986821907e+01 1.171115543316731333e+01
3.991163390559962210e+01 3.247962739291619272e+01 1.069093042466483823e+01
3.266957314546959878e+01 2.308272145146054299e+01 9.621369381068719306e+00
4.101668469088905056e+01 3.517631324654637837e+01 1.632876460803143814e+01
2.942928419986404975e+01 1.885949481551967466e+01 9.656968895178358991e+00
3.328112131407674923e+01 2.270136164378531518e+01 9.561716320347308340e+00
2.765222145875118542e+01 2.375157977248372276e+01 8.656370405791983913e+00
3.157000870612030852e+01 3.944574238083692563e+01 1.425160178724581250e+01
2.095687981869621552e+01 3.420391528374791079e+01 2.397618644903747409e+01
2.401249127395412941e+01 4.061621396596463285e+01 1.616048187859419727e+01
2.306463098355149555e+01 4.288190013756942420e+01 1.382161190325939693e+01
2.018818499087644369e+01 4.788998515832220448e+01 3.885654459577982056e+00
1.564470536218914454e+01 4.619585203097458503e+01 1.365201027921898103e+01
1.869249825853307811e+01 4.713124547407927167e+01 9.037911625985634245e+00
1.232621284651351523e+01 4.496126868824743639e+01 1.254684238128404417e+01
4.596416269735909665e+00 4.761954556072932832e+01 2.074486840943688293e+01
2.960339934797546135e+01 5.322561681280932788e+01 1.750093845791985103e+01
1.977926701079233140e+01 5.632738253924271277e+01 1.477162695618984500e+01
2.864864499761123895e+01 3.936049891734466399e+01 1.152451186652738713e+01
2.287061917866838101e+01 6.143927357152927016e+01 3.328269374608463238e+01
2.367542184930202254e+01 4.811208848438206331e+01 2.174350377151184688e+01
2.658361496746443109e+01 5.384767185168902159e+01 5.405697180463152307e+01
2.246892779942299256e+01 5.716997918671503953e+01 5.168112780086996594e+01
2.387313159724940448e+01 4.793520273790775121e+01 3.946717378906006246e+01
2.261246712230634515e+01 6.293029748791173716e+01 5.198161769462288362e+01
1.550560778459409583e+01 5.015880248162768140e+01 5.521925911129186915e+01
2.682946498032583449e+01 6.242251364271789527e+01 4.061005015078593772e+01
2.552728646897305964e+01 6.300918157268572628e+01 4.251624674367419487e+01
2.519003340306782235e+01 6.351882918571465808e+01 4.144594431334341067e+01
4.573301791954866502e+01 5.816426098030602532e+01 2.698025883640138645e+01
5.165926942532981059e+01 6.054454111458704091e+01 3.209063632057534932e+01
5.366375619350525028e+01 6.062012528301551839e+01 6.058852593633645256e+01
4.975964137058628012e+01 6.101904308390719933e+01 5.968215249381691478e+01
5.949130166313133827e+01 5.164760409926220319e+01 5.721574115087919665e+01
3.876986478709361705e+01 3.450450506263456418e+01 4.768953401334624687e+01
3.451936637456078927e+01 3.819128165130300090e+01 4.953956395292406967e+01
5.604394788022153051e+01 3.972883794830960369e+01 6.949711267899677125e+01
5.928572295196159558e+01 4.353089866838881505e+01 4.477750717322959417e+01
6.077581917654185872e+01 5.270281465099786544e+01 5.787812176562761834e+01
6.045820434959055945e+01 5.054236841399014679e+01 6.059434951270020520e+01
6.194051794834633284e+01 4.395367702911286045e+01 6.089520072298306985e+01
5.839486751066101533e+01 5.260372549530787722e+01 6.522488730614686858e+01
5.541728768301771879e+01 5.240382094940067503e+01 6.634601607964283687e+01
3.849276343433086112e+01 3.687324273151295273e+01 7.704214390020881353e+01
3.380412815925194536e+01 3.730579261576764338e+01 7.564818779781927560e+01
3.630180304199684116e+01 3.817059352886277424e+01 7.369090937055104007e+01
2.230162252914104215e+01 2.981459122071779433e+01 7.188214618822074442e+01
2.534149059174717067e+01 3.612846925163093914e+01 6.798194582454249257e+01
2.419281283215507372e+01 3.313572942522053921e+01 7.214240754681607370e+01
4.247172248278091189e+01 6.517434856976406898e+00 7.715295937422558836e+01
3.588423964494334761e+00 3.227054948534480872e+01 8.252468921512915756e+01
4.076789441710330664e+01 9.981646490781766801e+00 7.403984542081595066e+01
1.746668140864060348e+01 3.813875060335399070e+01 7.677205600996674661e+01
2.366274777137480001e+01 3.051405588431131477e+01 7.273878099185499480e+01
3.200722273586794842e+01 1.730591544296485296e+01 7.227175060700542986e+01
1.895479306837203026e+01 2.010385891390226121e+01 7.638623832422807425e+01
1.720033673965976107e+01 6.163727021321941280e+00 7.483874554314876093e+01
2.315152767490743813e+01 8.484850523499064323e+00 7.466838236237609294e+01
1.172446690167718231e+01 2.593914657467833784e+00 6.505383905300452341e+01
1.542224461626875609e+01 8.084874747698725272e+00 6.903661054761077764e+01
3.801935097080971815e+01 1.112558098966875697e+01 6.800778057528523846e+01
3.402946738391312209e+01 2.173104698920687916e+00 7.077572950267555996e+01
2.580982622406111915e+01 5.436488897866976089e+00 7.647736282348738257e+01
